ply
format ascii 1.0
element vertex 1120
property float x
property float y
property float z
property uchar red
property uchar green
property uchar blue
end_header
-2.125000 3.093750 -20.000000 214 176 127 
-2.062500 3.093750 -20.000000 214 176 127 
-2.000000 3.093750 -20.000000 213 175 126 
-1.864662 2.977444 -19.248119 213 175 126 
-1.804511 2.977444 -19.248119 214 176 127 
-1.744361 2.977444 -19.248119 213 175 126 
-1.677903 2.966292 -19.176029 212 174 125 
-1.624060 2.977444 -19.248119 212 174 125 
0.522876 0.575163 -3.718228 214 177 125 
0.534107 0.574746 -3.715530 213 176 124 
0.545323 0.574329 -3.712835 212 175 123 
0.556119 0.573497 -3.707458 213 176 124 
0.567705 0.573497 -3.707458 213 176 124 
0.578453 0.572668 -3.702097 213 176 124 
0.591304 0.573913 -3.710145 214 177 125 
11.937500 3.093750 -20.000000 175 148 93 
12.000000 3.093750 -20.000000 174 148 92 
12.062500 3.093750 -20.000000 174 148 91 
-4.821918 2.657534 -17.534246 197 165 117 
-4.767123 2.657534 -17.534246 197 165 117 
-4.728522 2.666667 -17.594501 198 166 117 
-4.689655 2.675862 -17.655172 198 166 118 
-4.650519 2.685121 -17.716263 199 165 117 
-4.611111 2.694444 -17.777779 199 166 117 
-4.571429 2.703833 -17.839722 199 166 118 
-4.547369 2.722807 -17.964912 200 167 118 
-4.812500 3.031250 -20.000000 201 167 119 
-4.750000 3.031250 -20.000000 201 167 119 
-4.687500 3.031250 -20.000000 202 168 120 
-4.625000 3.031250 -20.000000 202 168 120 
-4.562500 3.031250 -20.000000 202 168 120 
-4.500000 3.031250 -20.000000 203 169 121 
-4.437500 3.031250 -20.000000 204 169 121 
-4.375000 3.031250 -20.000000 205 170 121 
-4.312500 3.031250 -20.000000 205 170 121 
-4.250000 3.031250 -20.000000 206 170 120 
-4.187500 3.031250 -20.000000 206 170 120 
-4.125000 3.031250 -20.000000 205 169 119 
-3.375000 3.031250 -20.000000 210 174 124 
-3.312500 3.031250 -20.000000 210 174 124 
-3.250000 3.031250 -20.000000 210 174 124 
-3.187500 3.031250 -20.000000 210 174 124 
-3.125000 3.031250 -20.000000 210 174 124 
-3.062500 3.031250 -20.000000 211 175 125 
-3.000000 3.031250 -20.000000 211 175 126 
-2.937500 3.031250 -20.000000 211 175 126 
-2.875000 3.031250 -20.000000 211 175 127 
-2.812500 3.031250 -20.000000 212 176 127 
-2.750000 3.031250 -20.000000 212 176 127 
-2.687500 3.031250 -20.000000 212 176 127 
-2.625000 3.031250 -20.000000 212 176 127 
-2.562500 3.031250 -20.000000 212 176 127 
-2.500000 3.031250 -20.000000 213 176 125 
-2.437500 3.031250 -20.000000 213 176 125 
-2.375000 3.031250 -20.000000 213 176 125 
-2.312500 3.031250 -20.000000 213 175 124 
-2.250000 3.031250 -20.000000 213 176 125 
-2.187500 3.031250 -20.000000 214 177 126 
-2.125000 3.031250 -20.000000 214 177 126 
-2.062500 3.031250 -20.000000 214 177 126 
-1.924812 2.917293 -19.248119 214 176 126 
-1.864662 2.917293 -19.248119 214 176 127 
-1.791045 2.895522 -19.104477 214 176 127 
-1.731343 2.895522 -19.104477 213 175 126 
-1.671642 2.895522 -19.104477 212 174 125 
0.534107 0.563135 -3.715530 213 176 124 
0.545323 0.562727 -3.712835 212 175 123 
0.556119 0.561912 -3.707458 213 176 124 
0.567705 0.561912 -3.707458 213 176 124 
0.579710 0.562319 -3.710145 214 177 125 
0.683969 0.592366 -3.908397 212 176 125 
11.937500 3.031250 -20.000000 175 148 93 
12.000000 3.031250 -20.000000 174 147 92 
12.062500 3.031250 -20.000000 174 148 91 
-4.821918 2.602740 -17.534246 197 165 116 
-4.767123 2.602740 -17.534246 198 166 117 
-4.728522 2.611684 -17.594501 198 166 117 
-4.689655 2.620690 -17.655172 198 166 117 
-4.650519 2.629758 -17.716263 199 165 117 
-4.611111 2.638889 -17.777779 199 165 117 
-4.571429 2.648084 -17.839722 199 165 117 
-4.547369 2.666667 -17.964912 200 166 118 
-4.875000 2.968750 -20.000000 201 167 119 
-4.812500 2.968750 -20.000000 201 167 119 
-4.750000 2.968750 -20.000000 201 167 119 
-4.687500 2.968750 -20.000000 202 168 120 
-4.625000 2.968750 -20.000000 202 168 120 
-4.562500 2.968750 -20.000000 202 168 120 
-4.500000 2.968750 -20.000000 204 169 121 
-4.437500 2.968750 -20.000000 205 169 121 
-4.375000 2.968750 -20.000000 205 169 121 
-4.312500 2.968750 -20.000000 206 170 121 
-4.250000 2.968750 -20.000000 206 170 120 
-4.187500 2.968750 -20.000000 206 170 120 
-4.125000 2.968750 -20.000000 206 170 120 
-4.062500 2.968750 -20.000000 206 170 120 
-3.375000 2.968750 -20.000000 210 174 124 
-3.312500 2.968750 -20.000000 210 174 124 
-3.250000 2.968750 -20.000000 210 174 124 
-3.187500 2.968750 -20.000000 210 174 124 
-3.125000 2.968750 -20.000000 210 174 124 
-3.062500 2.968750 -20.000000 211 175 125 
-3.000000 2.968750 -20.000000 211 175 126 
-2.937500 2.968750 -20.000000 211 175 126 
-2.875000 2.968750 -20.000000 212 176 127 
-2.812500 2.968750 -20.000000 212 176 127 
-2.750000 2.968750 -20.000000 212 176 127 
-2.687500 2.968750 -20.000000 212 176 127 
-2.625000 2.968750 -20.000000 212 176 127 
-2.562500 2.968750 -20.000000 212 176 127 
-2.500000 2.968750 -20.000000 213 176 125 
-2.437500 2.968750 -20.000000 214 177 125 
-2.375000 2.968750 -20.000000 214 177 125 
-2.312500 2.968750 -20.000000 213 176 124 
-2.250000 2.968750 -20.000000 214 177 125 
-2.187500 2.968750 -20.000000 214 177 125 
-2.125000 2.968750 -20.000000 214 177 125 
-2.062500 2.968750 -20.000000 214 177 125 
-1.917603 2.846442 -19.176029 214 176 126 
-1.857678 2.846442 -19.176029 214 176 127 
-1.784387 2.825279 -19.033457 214 176 127 
-1.724907 2.825279 -19.033457 213 175 126 
-1.665428 2.825279 -19.033457 213 175 126 
0.534107 0.551524 -3.715530 213 176 124 
0.545323 0.551124 -3.712835 213 176 124 
0.555716 0.549928 -3.704776 213 176 124 
0.567294 0.549928 -3.704776 213 176 124 
0.579710 0.550725 -3.710145 214 177 125 
0.670732 0.579268 -3.902439 213 176 124 
0.682927 0.579268 -3.902439 212 176 124 
0.696183 0.580153 -3.908397 211 177 126 
11.875000 2.968750 -20.000000 176 149 94 
11.937500 2.968750 -20.000000 175 148 93 
12.000000 2.968750 -20.000000 174 147 92 
12.062500 2.968750 -20.000000 174 148 91 
-4.838488 2.556701 -17.594501 197 165 116 
-4.783505 2.556701 -17.594501 198 166 117 
-4.744828 2.565517 -17.655172 198 166 117 
-4.705883 2.574394 -17.716263 198 166 117 
-4.666667 2.583333 -17.777779 200 166 118 
-4.611111 2.583333 -17.777779 200 166 118 
-4.571429 2.592335 -17.839722 200 166 118 
-4.547369 2.610526 -17.964912 201 167 119 
-4.875000 2.906250 -20.000000 201 167 119 
-4.812500 2.906250 -20.000000 201 167 119 
-4.750000 2.906250 -20.000000 201 167 119 
-4.687500 2.906250 -20.000000 202 168 120 
-4.625000 2.906250 -20.000000 202 168 120 
-4.562500 2.906250 -20.000000 202 168 120 
-4.500000 2.906250 -20.000000 204 169 121 
-4.437500 2.906250 -20.000000 205 169 121 
-4.375000 2.906250 -20.000000 205 169 121 
-4.312500 2.906250 -20.000000 206 170 121 
-4.250000 2.906250 -20.000000 206 170 121 
-4.187500 2.906250 -20.000000 207 171 121 
-4.125000 2.906250 -20.000000 207 171 121 
-4.062500 2.906250 -20.000000 208 172 121 
-3.375000 2.906250 -20.000000 210 174 124 
-3.312500 2.906250 -20.000000 210 174 124 
-3.250000 2.906250 -20.000000 210 174 124 
-3.187500 2.906250 -20.000000 210 174 124 
-3.125000 2.906250 -20.000000 210 174 124 
-3.062500 2.906250 -20.000000 211 175 125 
-3.000000 2.906250 -20.000000 211 175 125 
-2.937500 2.906250 -20.000000 211 175 125 
-2.875000 2.906250 -20.000000 212 176 126 
-2.812500 2.906250 -20.000000 212 176 126 
-2.750000 2.906250 -20.000000 212 176 126 
-2.687500 2.906250 -20.000000 212 176 126 
-2.625000 2.906250 -20.000000 212 176 126 
-2.562500 2.906250 -20.000000 212 176 126 
-2.500000 2.906250 -20.000000 212 176 124 
-2.337079 2.786517 -19.176029 213 176 124 
-2.277153 2.786517 -19.176029 213 176 124 
-2.217228 2.786517 -19.176029 213 176 124 
-2.157303 2.786517 -19.176029 214 177 125 
-2.097378 2.786517 -19.176029 214 177 125 
-2.052830 2.807547 -19.320755 214 177 125 
-1.977528 2.786517 -19.176029 214 177 125 
-1.910448 2.776119 -19.104477 214 176 126 
-1.850746 2.776119 -19.104477 214 176 127 
-1.784387 2.765799 -19.033457 214 176 127 
-1.718518 2.755556 -18.962963 213 175 126 
-1.659259 2.755556 -18.962963 214 176 127 
0.534107 0.539913 -3.715530 213 176 124 
0.545323 0.539521 -3.712835 213 176 124 
0.555716 0.538350 -3.704776 213 176 124 
0.567294 0.538350 -3.704776 213 176 124 
0.670732 0.567073 -3.902439 213 176 124 
0.682927 0.567073 -3.902439 214 176 125 
0.697781 0.569243 -3.917368 212 176 127 
11.875000 2.906250 -20.000000 176 149 94 
11.937500 2.906250 -20.000000 175 148 93 
12.000000 2.906250 -20.000000 175 148 92 
12.062500 2.906250 -20.000000 174 148 92 
-4.838488 2.501718 -17.594501 197 165 117 
-4.783505 2.501718 -17.594501 198 166 117 
-4.761246 2.519031 -17.716263 198 166 118 
-4.722222 2.527778 -17.777779 198 166 118 
-4.666667 2.527778 -17.777779 199 165 118 
-4.611111 2.527778 -17.777779 199 165 118 
-4.587412 2.545455 -17.902098 199 165 118 
-4.563380 2.563380 -18.028170 200 166 118 
-4.875000 2.843750 -20.000000 201 167 119 
-4.812500 2.843750 -20.000000 202 168 120 
-4.750000 2.843750 -20.000000 202 168 120 
-4.687500 2.843750 -20.000000 202 168 120 
-4.625000 2.843750 -20.000000 202 168 120 
-4.562500 2.843750 -20.000000 202 168 120 
-4.500000 2.843750 -20.000000 204 169 121 
-4.437500 2.843750 -20.000000 205 169 121 
-4.375000 2.843750 -20.000000 205 169 121 
-4.312500 2.843750 -20.000000 206 170 121 
-4.250000 2.843750 -20.000000 206 170 120 
-4.187500 2.843750 -20.000000 206 170 120 
-4.125000 2.843750 -20.000000 207 171 121 
-3.375000 2.843750 -20.000000 210 174 124 
-3.312500 2.843750 -20.000000 210 174 124 
-3.250000 2.843750 -20.000000 210 174 124 
-3.187500 2.843750 -20.000000 210 174 124 
-3.125000 2.843750 -20.000000 210 174 124 
-3.062500 2.843750 -20.000000 211 175 125 
-3.000000 2.843750 -20.000000 211 175 125 
-2.937500 2.843750 -20.000000 211 175 125 
-2.875000 2.843750 -20.000000 212 176 126 
-2.812500 2.843750 -20.000000 212 176 126 
-2.750000 2.843750 -20.000000 212 176 126 
-2.687500 2.843750 -20.000000 212 176 126 
-2.625000 2.843750 -20.000000 212 176 126 
-2.562500 2.843750 -20.000000 212 176 126 
-2.415094 2.747170 -19.320755 213 176 124 
-2.328358 2.716418 -19.104477 213 176 124 
-2.251852 2.696296 -18.962963 213 176 124 
-2.192593 2.696296 -18.962963 213 176 124 
-2.141264 2.706320 -19.033457 214 177 125 
-2.081784 2.706320 -19.033457 214 177 125 
-2.037453 2.726592 -19.176029 214 177 125 
-1.970149 2.716418 -19.104477 214 177 125 
-1.896296 2.696296 -18.962963 214 176 126 
-1.837037 2.696296 -18.962963 214 176 127 
-1.777778 2.696296 -18.962963 214 176 127 
-1.718518 2.696296 -18.962963 213 175 126 
-1.659259 2.696296 -18.962963 213 175 126 
0.534495 0.528686 -3.718228 213 176 124 
0.545323 0.527919 -3.712835 214 177 125 
0.556925 0.527919 -3.712835 213 176 124 
0.568528 0.527919 -3.712835 213 176 124 
0.672269 0.556150 -3.911383 213 176 124 
0.684492 0.556150 -3.911383 215 175 126 
0.698315 0.557427 -3.920367 214 175 128 
11.875000 2.843750 -20.000000 176 149 94 
11.937500 2.843750 -20.000000 175 148 93 
12.000000 2.843750 -20.000000 175 149 92 
12.062500 2.843750 -20.000000 175 149 92 
-4.838488 2.446735 -17.594501 197 165 118 
-4.783505 2.446735 -17.594501 197 165 118 
-4.761246 2.463668 -17.716263 197 165 118 
-4.722222 2.472222 -17.777779 198 165 119 
-4.666667 2.472222 -17.777779 199 165 119 
-4.627178 2.480836 -17.839722 199 165 119 
-4.603509 2.498246 -17.964912 199 165 119 
-4.937500 2.781250 -20.000000 200 166 118 
-4.875000 2.781250 -20.000000 200 166 118 
-4.812500 2.781250 -20.000000 201 167 119 
-4.750000 2.781250 -20.000000 201 167 119 
-4.687500 2.781250 -20.000000 202 168 120 
-4.625000 2.781250 -20.000000 202 168 120 
-4.562500 2.781250 -20.000000 202 168 120 
-4.500000 2.781250 -20.000000 204 168 120 
-4.437500 2.781250 -20.000000 204 168 120 
-4.375000 2.781250 -20.000000 205 169 121 
-4.312500 2.781250 -20.000000 205 169 121 
-4.250000 2.781250 -20.000000 206 170 120 
-4.187500 2.781250 -20.000000 206 170 120 
-4.125000 2.781250 -20.000000 207 171 121 
-3.375000 2.781250 -20.000000 210 174 124 
-3.312500 2.781250 -20.000000 210 174 124 
-3.250000 2.781250 -20.000000 210 174 124 
-3.187500 2.781250 -20.000000 210 174 124 
-3.125000 2.781250 -20.000000 211 175 125 
-3.062500 2.781250 -20.000000 211 175 125 
-3.000000 2.781250 -20.000000 212 175 125 
-2.937500 2.781250 -20.000000 212 175 126 
-2.875000 2.781250 -20.000000 212 175 125 
-2.812500 2.781250 -20.000000 212 175 125 
-2.750000 2.781250 -20.000000 212 175 126 
-2.687500 2.781250 -20.000000 213 175 126 
-2.625000 2.781250 -20.000000 213 175 126 
-2.562500 2.781250 -20.000000 213 175 126 
-2.388060 2.656716 -19.104477 212 175 124 
-2.302583 2.627306 -18.892988 213 176 124 
-2.235294 2.617647 -18.823530 213 176 124 
-2.176471 2.617647 -18.823530 214 177 125 
-2.133333 2.637037 -18.962963 214 177 125 
-2.081784 2.646840 -19.033457 214 177 125 
-2.037453 2.666667 -19.176029 214 177 125 
-1.970149 2.656716 -19.104477 214 177 125 
-1.896296 2.637037 -18.962963 214 176 126 
-1.837037 2.637037 -18.962963 214 176 127 
-1.777778 2.637037 -18.962963 214 176 127 
-1.731343 2.656716 -19.104477 213 175 126 
-1.690566 2.686792 -19.320755 213 175 126 
0.523256 0.517442 -3.720930 212 175 123 
0.534495 0.517066 -3.718228 212 175 123 
0.545718 0.516691 -3.715530 213 176 124 
0.557329 0.516691 -3.715530 213 176 124 
0.673813 0.545176 -3.920367 214 177 125 
0.686064 0.545176 -3.920367 216 175 127 
11.875000 2.781250 -20.000000 176 149 94 
11.937500 2.781250 -20.000000 175 148 93 
12.000000 2.781250 -20.000000 175 148 92 
12.062500 2.781250 -20.000000 174 148 91 
-4.838488 2.391752 -17.594501 197 165 118 
-4.783505 2.391752 -17.594501 197 165 118 
-4.744828 2.400000 -17.655172 197 165 118 
-4.705883 2.408304 -17.716263 197 165 118 
-4.666667 2.416667 -17.777779 199 165 119 
-4.627178 2.425087 -17.839722 200 166 120 
-4.937500 2.718750 -20.000000 200 166 118 
-4.875000 2.718750 -20.000000 200 166 118 
-4.812500 2.718750 -20.000000 200 166 118 
-4.750000 2.718750 -20.000000 201 167 119 
-4.687500 2.718750 -20.000000 202 168 120 
-4.625000 2.718750 -20.000000 202 168 120 
-4.562500 2.718750 -20.000000 202 168 120 
-4.500000 2.718750 -20.000000 204 168 120 
-4.437500 2.718750 -20.000000 205 169 121 
-4.375000 2.718750 -20.000000 205 169 121 
-4.312500 2.718750 -20.000000 205 169 121 
-4.250000 2.718750 -20.000000 206 170 120 
-4.187500 2.718750 -20.000000 206 170 120 
-4.125000 2.718750 -20.000000 207 171 121 
-3.375000 2.718750 -20.000000 210 174 124 
-3.312500 2.718750 -20.000000 210 174 124 
-3.250000 2.718750 -20.000000 210 174 124 
-3.187500 2.718750 -20.000000 211 175 125 
-3.125000 2.718750 -20.000000 211 175 125 
-3.062500 2.718750 -20.000000 211 175 125 
-3.000000 2.718750 -20.000000 212 175 125 
-2.937500 2.718750 -20.000000 213 175 124 
-2.875000 2.718750 -20.000000 212 175 124 
-2.812500 2.718750 -20.000000 212 175 124 
-2.750000 2.718750 -20.000000 212 175 124 
-2.687500 2.718750 -20.000000 212 175 124 
-2.625000 2.718750 -20.000000 212 175 124 
-2.562500 2.718750 -20.000000 212 175 124 
-2.379182 2.587361 -19.033457 212 175 124 
-2.294118 2.558824 -18.823530 213 176 124 
-2.235294 2.558824 -18.823530 214 177 125 
-2.176471 2.558824 -18.823530 214 177 125 
-2.141264 2.587361 -19.033457 214 177 125 
-1.932076 2.626415 -19.320755 214 176 126 
-1.857678 2.606742 -19.176029 214 176 127 
-1.811321 2.626415 -19.320755 214 176 127 
0.523256 0.505814 -3.720930 212 175 123 
0.534884 0.505814 -3.720930 212 175 123 
0.546115 0.505447 -3.718228 213 176 124 
0.557734 0.505447 -3.718228 213 176 124 
0.689761 0.535797 -3.941494 215 176 126 
11.875000 2.718750 -20.000000 176 149 94 
11.937500 2.718750 -20.000000 175 148 93 
12.000000 2.718750 -20.000000 176 149 93 
12.062500 2.718750 -20.000000 175 149 92 
-4.838488 2.336770 -17.594501 197 165 118 
-4.783505 2.336770 -17.594501 197 165 118 
-4.744828 2.344828 -17.655172 198 166 119 
-4.705883 2.352941 -17.716263 198 166 119 
-4.666667 2.361111 -17.777779 199 165 119 
-4.627178 2.369338 -17.839722 199 165 119 
-5.000000 2.656250 -20.000000 201 166 119 
-4.937500 2.656250 -20.000000 200 166 118 
-4.875000 2.656250 -20.000000 200 166 118 
-4.812500 2.656250 -20.000000 200 166 118 
-4.750000 2.656250 -20.000000 201 167 119 
-4.687500 2.656250 -20.000000 202 168 120 
-4.625000 2.656250 -20.000000 202 168 120 
-4.562500 2.656250 -20.000000 202 168 120 
-4.500000 2.656250 -20.000000 204 169 121 
-4.437500 2.656250 -20.000000 205 169 121 
-4.375000 2.656250 -20.000000 205 169 121 
-4.312500 2.656250 -20.000000 206 170 121 
-4.250000 2.656250 -20.000000 206 170 120 
-4.187500 2.656250 -20.000000 206 170 120 
-4.125000 2.656250 -20.000000 207 171 121 
-4.062500 2.656250 -20.000000 207 171 121 
-3.375000 2.656250 -20.000000 210 174 124 
-3.312500 2.656250 -20.000000 210 174 124 
-3.250000 2.656250 -20.000000 210 174 124 
-3.187500 2.656250 -20.000000 211 175 125 
-3.125000 2.656250 -20.000000 211 175 125 
-3.062500 2.656250 -20.000000 211 175 125 
-3.000000 2.656250 -20.000000 212 175 124 
-2.937500 2.656250 -20.000000 212 175 123 
-2.875000 2.656250 -20.000000 213 176 124 
-2.812500 2.656250 -20.000000 213 176 124 
-2.750000 2.656250 -20.000000 213 176 124 
-2.687500 2.656250 -20.000000 213 176 124 
-2.625000 2.656250 -20.000000 213 176 124 
-2.562500 2.656250 -20.000000 213 176 124 
-2.397004 2.546817 -19.176029 213 176 124 
-2.285714 2.490843 -18.754580 214 177 125 
-2.235294 2.500000 -18.823530 214 177 125 
-2.176471 2.500000 -18.823530 214 177 125 
0.523256 0.494186 -3.720930 212 175 123 
0.534884 0.494186 -3.720930 212 175 123 
0.546115 0.493827 -3.718228 213 176 124 
0.557734 0.493827 -3.718228 213 176 124 
0.690293 0.523883 -3.944530 214 177 125 
11.875000 2.656250 -20.000000 176 149 94 
11.937500 2.656250 -20.000000 176 149 94 
12.000000 2.656250 -20.000000 176 150 94 
12.062500 2.656250 -20.000000 176 150 93 
-4.838488 2.281787 -17.594501 196 164 118 
-4.783505 2.281787 -17.594501 197 164 118 
-4.761246 2.297578 -17.716263 198 165 119 
-4.722222 2.305556 -17.777779 199 166 120 
-4.682927 2.313589 -17.839722 199 165 119 
-5.062500 2.593750 -20.000000 200 165 119 
-5.000000 2.593750 -20.000000 200 166 119 
-4.937500 2.593750 -20.000000 200 166 118 
-4.875000 2.593750 -20.000000 200 166 118 
-4.812500 2.593750 -20.000000 200 166 119 
-4.750000 2.593750 -20.000000 201 167 119 
-4.687500 2.593750 -20.000000 202 168 120 
-4.625000 2.593750 -20.000000 202 168 120 
-4.562500 2.593750 -20.000000 202 168 120 
-4.500000 2.593750 -20.000000 204 169 121 
-4.437500 2.593750 -20.000000 206 170 122 
-4.375000 2.593750 -20.000000 206 170 122 
-4.312500 2.593750 -20.000000 206 170 121 
-4.250000 2.593750 -20.000000 206 170 120 
-4.187500 2.593750 -20.000000 206 170 120 
-4.125000 2.593750 -20.000000 207 171 121 
-4.062500 2.593750 -20.000000 207 171 120 
-4.000000 2.593750 -20.000000 207 171 120 
-3.937500 2.593750 -20.000000 207 171 121 
-3.875000 2.593750 -20.000000 208 172 122 
-3.375000 2.593750 -20.000000 210 174 124 
-3.312500 2.593750 -20.000000 210 174 124 
-3.250000 2.593750 -20.000000 210 174 124 
-3.187500 2.593750 -20.000000 211 175 125 
-3.125000 2.593750 -20.000000 211 175 125 
-3.062500 2.593750 -20.000000 211 175 125 
-3.000000 2.593750 -20.000000 211 175 123 
-2.937500 2.593750 -20.000000 212 175 123 
-2.875000 2.593750 -20.000000 213 176 124 
-2.812500 2.593750 -20.000000 214 177 125 
-2.750000 2.593750 -20.000000 214 177 125 
-2.687500 2.593750 -20.000000 214 177 125 
-2.625000 2.593750 -20.000000 214 177 125 
-2.562500 2.593750 -20.000000 214 177 125 
-2.500000 2.593750 -20.000000 214 177 125 
-2.294118 2.441176 -18.823530 214 177 125 
0.534884 0.482558 -3.720930 212 175 123 
0.546115 0.482208 -3.718228 213 176 124 
0.557734 0.482208 -3.718228 213 176 124 
0.691358 0.512346 -3.950617 212 177 124 
0.703704 0.512346 -3.950617 210 177 124 
11.875000 2.593750 -20.000000 177 150 95 
11.937500 2.593750 -20.000000 176 149 94 
12.000000 2.593750 -20.000000 175 149 93 
12.062500 2.593750 -20.000000 175 149 92 
-4.871972 2.242214 -17.716263 197 164 118 
-4.800000 2.234483 -17.655172 198 164 118 
-4.777778 2.250000 -17.777779 198 164 119 
-4.738676 2.257840 -17.839722 199 165 119 
-5.062500 2.531250 -20.000000 200 166 120 
-5.000000 2.531250 -20.000000 200 166 120 
-4.937500 2.531250 -20.000000 200 166 120 
-4.875000 2.531250 -20.000000 201 167 120 
-4.812500 2.531250 -20.000000 201 167 121 
-4.750000 2.531250 -20.000000 201 167 120 
-4.687500 2.531250 -20.000000 202 168 120 
-4.625000 2.531250 -20.000000 203 169 121 
-4.562500 2.531250 -20.000000 203 169 121 
-4.500000 2.531250 -20.000000 204 169 121 
-4.437500 2.531250 -20.000000 205 169 121 
-4.375000 2.531250 -20.000000 206 170 122 
-4.312500 2.531250 -20.000000 206 170 121 
-4.250000 2.531250 -20.000000 206 170 120 
-4.187500 2.531250 -20.000000 206 170 120 
-4.125000 2.531250 -20.000000 206 170 120 
-4.062500 2.531250 -20.000000 206 170 120 
-4.000000 2.531250 -20.000000 207 171 120 
-3.937500 2.531250 -20.000000 207 171 121 
-3.875000 2.531250 -20.000000 208 172 122 
-3.812500 2.531250 -20.000000 208 172 122 
-3.750000 2.531250 -20.000000 208 172 122 
-3.687500 2.531250 -20.000000 209 173 123 
-3.625000 2.531250 -20.000000 209 173 123 
-3.562500 2.531250 -20.000000 209 173 123 
-3.437500 2.531250 -20.000000 210 173 124 
-3.375000 2.531250 -20.000000 211 173 124 
-3.312500 2.531250 -20.000000 211 173 124 
-3.250000 2.531250 -20.000000 211 174 124 
-3.187500 2.531250 -20.000000 212 174 125 
-3.125000 2.531250 -20.000000 212 174 125 
-3.062500 2.531250 -20.000000 212 174 125 
-3.000000 2.531250 -20.000000 212 175 124 
-2.937500 2.531250 -20.000000 213 176 124 
-2.875000 2.531250 -20.000000 213 176 124 
-2.812500 2.531250 -20.000000 214 177 125 
-2.750000 2.531250 -20.000000 214 177 125 
-2.687500 2.531250 -20.000000 213 176 124 
-2.625000 2.531250 -20.000000 213 176 124 
-2.562500 2.531250 -20.000000 214 177 125 
-2.500000 2.531250 -20.000000 214 177 125 
-2.319703 2.408922 -19.033457 213 176 124 
0.534884 0.470930 -3.720930 213 176 124 
0.546115 0.470588 -3.718228 213 176 124 
0.557734 0.470588 -3.718228 213 176 124 
0.690293 0.499230 -3.944530 213 176 123 
0.703704 0.500000 -3.950617 212 176 124 
11.875000 2.531250 -20.000000 177 150 95 
11.937500 2.531250 -20.000000 176 149 94 
12.000000 2.531250 -20.000000 175 149 92 
12.062500 2.531250 -20.000000 174 148 91 
-4.888889 2.194444 -17.777779 198 164 118 
-4.833333 2.194444 -17.777779 198 164 118 
-4.794425 2.202091 -17.839722 198 164 118 
-5.000000 2.468750 -20.000000 200 166 121 
-4.937500 2.468750 -20.000000 201 167 121 
-4.875000 2.468750 -20.000000 201 167 121 
-4.812500 2.468750 -20.000000 201 167 121 
-4.750000 2.468750 -20.000000 201 167 120 
-4.687500 2.468750 -20.000000 202 168 120 
-4.625000 2.468750 -20.000000 203 169 121 
-4.562500 2.468750 -20.000000 203 169 121 
-4.500000 2.468750 -20.000000 204 169 121 
-4.437500 2.468750 -20.000000 205 169 121 
-4.375000 2.468750 -20.000000 205 169 121 
-4.312500 2.468750 -20.000000 206 170 121 
-4.250000 2.468750 -20.000000 205 169 120 
-4.187500 2.468750 -20.000000 206 170 120 
-4.125000 2.468750 -20.000000 207 171 121 
-4.062500 2.468750 -20.000000 206 170 120 
-4.000000 2.468750 -20.000000 207 171 120 
-3.937500 2.468750 -20.000000 207 171 121 
-3.875000 2.468750 -20.000000 208 172 122 
-3.812500 2.468750 -20.000000 208 172 122 
-3.750000 2.468750 -20.000000 208 172 122 
-3.687500 2.468750 -20.000000 208 172 122 
-3.625000 2.468750 -20.000000 208 172 122 
-3.562500 2.468750 -20.000000 209 173 123 
-3.500000 2.468750 -20.000000 210 172 123 
-3.437500 2.468750 -20.000000 210 172 123 
-3.375000 2.468750 -20.000000 211 173 124 
-3.312500 2.468750 -20.000000 211 173 124 
-3.250000 2.468750 -20.000000 212 174 125 
-3.187500 2.468750 -20.000000 212 174 125 
-3.125000 2.468750 -20.000000 212 174 125 
-3.062500 2.468750 -20.000000 212 174 125 
-3.000000 2.468750 -20.000000 213 175 124 
-2.937500 2.468750 -20.000000 213 176 124 
-2.875000 2.468750 -20.000000 213 176 124 
-2.812500 2.468750 -20.000000 214 177 125 
-2.750000 2.468750 -20.000000 213 176 124 
-2.687500 2.468750 -20.000000 213 176 124 
-2.625000 2.468750 -20.000000 213 176 124 
-2.562500 2.468750 -20.000000 214 177 125 
-2.500000 2.468750 -20.000000 214 177 125 
0.676923 0.486154 -3.938462 213 176 124 
0.689231 0.486154 -3.938462 215 176 123 
0.703704 0.487654 -3.950617 214 176 125 
11.875000 2.468750 -20.000000 177 150 95 
11.937500 2.468750 -20.000000 176 149 94 
12.000000 2.468750 -20.000000 175 149 93 
12.062500 2.468750 -20.000000 175 149 92 
-4.905923 2.146342 -17.839722 197 164 118 
-4.850174 2.146342 -17.839722 198 164 118 
-4.811189 2.153846 -17.902098 198 164 118 
-5.000000 2.406250 -20.000000 201 167 121 
-4.937500 2.406250 -20.000000 201 167 121 
-4.875000 2.406250 -20.000000 201 167 121 
-4.812500 2.406250 -20.000000 201 167 121 
-4.750000 2.406250 -20.000000 201 167 120 
-4.687500 2.406250 -20.000000 202 168 120 
-4.625000 2.406250 -20.000000 203 169 121 
-4.562500 2.406250 -20.000000 203 169 121 
-4.500000 2.406250 -20.000000 204 169 121 
-4.437500 2.406250 -20.000000 205 169 121 
-4.375000 2.406250 -20.000000 205 169 121 
-4.312500 2.406250 -20.000000 206 170 121 
-4.250000 2.406250 -20.000000 206 170 120 
-4.187500 2.406250 -20.000000 207 171 121 
-4.125000 2.406250 -20.000000 207 171 121 
-4.062500 2.406250 -20.000000 207 171 120 
-4.000000 2.406250 -20.000000 207 171 120 
-3.937500 2.406250 -20.000000 207 171 121 
-3.875000 2.406250 -20.000000 208 172 122 
-3.812500 2.406250 -20.000000 208 172 122 
-3.750000 2.406250 -20.000000 208 172 122 
-3.687500 2.406250 -20.000000 208 172 122 
-3.625000 2.406250 -20.000000 208 172 122 
-3.562500 2.406250 -20.000000 208 172 122 
-3.500000 2.406250 -20.000000 209 172 123 
-3.437500 2.406250 -20.000000 210 172 123 
-3.375000 2.406250 -20.000000 211 173 124 
-3.312500 2.406250 -20.000000 211 173 124 
-3.250000 2.406250 -20.000000 212 174 125 
-3.187500 2.406250 -20.000000 212 174 125 
-3.125000 2.406250 -20.000000 212 174 125 
-3.062500 2.406250 -20.000000 212 174 125 
-3.000000 2.406250 -20.000000 213 175 124 
-2.937500 2.406250 -20.000000 213 176 124 
-2.875000 2.406250 -20.000000 213 176 124 
-2.812500 2.406250 -20.000000 214 177 125 
-2.750000 2.406250 -20.000000 213 176 124 
-2.687500 2.406250 -20.000000 213 176 124 
-2.625000 2.406250 -20.000000 213 176 124 
-2.562500 2.406250 -20.000000 214 177 125 
-2.500000 2.406250 -20.000000 214 177 125 
0.575053 0.434109 -3.608175 213 176 124 
0.588402 0.435644 -3.620934 213 176 124 
0.676923 0.473846 -3.938462 213 176 124 
0.689231 0.473846 -3.938462 215 176 124 
0.704791 0.476043 -3.956723 214 176 125 
11.875000 2.406250 -20.000000 177 150 95 
11.937500 2.406250 -20.000000 176 149 94 
12.000000 2.406250 -20.000000 176 149 93 
12.062500 2.406250 -20.000000 175 148 93 
12.125000 2.406250 -20.000000 174 147 91 
-4.905923 2.090592 -17.839722 198 164 118 
-4.833333 2.083333 -17.777779 198 164 118 
-4.794425 2.090592 -17.839722 198 164 118 
-4.771930 2.105263 -17.964912 199 165 119 
-5.000000 2.343750 -20.000000 201 167 121 
-4.937500 2.343750 -20.000000 201 167 121 
-4.875000 2.343750 -20.000000 201 167 121 
-4.812500 2.343750 -20.000000 200 166 120 
-4.750000 2.343750 -20.000000 200 166 120 
-4.687500 2.343750 -20.000000 202 168 120 
-4.625000 2.343750 -20.000000 203 169 121 
-4.562500 2.343750 -20.000000 203 169 121 
-4.500000 2.343750 -20.000000 204 169 121 
-4.437500 2.343750 -20.000000 205 169 121 
-4.375000 2.343750 -20.000000 205 169 121 
-4.312500 2.343750 -20.000000 206 170 121 
-4.250000 2.343750 -20.000000 206 170 120 
-4.187500 2.343750 -20.000000 207 171 121 
-4.125000 2.343750 -20.000000 207 171 121 
-4.062500 2.343750 -20.000000 207 171 121 
-4.000000 2.343750 -20.000000 207 171 121 
-3.937500 2.343750 -20.000000 207 171 121 
-3.875000 2.343750 -20.000000 208 172 122 
-3.812500 2.343750 -20.000000 208 172 122 
-3.750000 2.343750 -20.000000 208 172 122 
-3.687500 2.343750 -20.000000 208 172 122 
-3.625000 2.343750 -20.000000 209 173 123 
-3.562500 2.343750 -20.000000 209 173 123 
-3.500000 2.343750 -20.000000 210 172 123 
-3.437500 2.343750 -20.000000 210 172 123 
-3.375000 2.343750 -20.000000 211 173 124 
-3.312500 2.343750 -20.000000 211 173 124 
-3.250000 2.343750 -20.000000 212 174 125 
-3.187500 2.343750 -20.000000 212 174 125 
-3.125000 2.343750 -20.000000 212 174 125 
-3.062500 2.343750 -20.000000 212 174 125 
-3.000000 2.343750 -20.000000 213 175 124 
-2.937500 2.343750 -20.000000 213 176 124 
-2.875000 2.343750 -20.000000 213 176 124 
-2.812500 2.343750 -20.000000 214 177 125 
-2.750000 2.343750 -20.000000 213 176 124 
-2.687500 2.343750 -20.000000 213 176 124 
-2.625000 2.343750 -20.000000 213 176 124 
-2.562500 2.343750 -20.000000 214 177 125 
-2.500000 2.343750 -20.000000 214 177 125 
-2.437500 2.343750 -20.000000 214 177 125 
-2.312500 2.343750 -20.000000 214 177 125 
-2.250000 2.343750 -20.000000 214 177 125 
-2.187500 2.343750 -20.000000 214 177 125 
-2.125000 2.343750 -20.000000 214 177 125 
-2.062500 2.343750 -20.000000 214 177 125 
-2.000000 2.343750 -20.000000 214 177 125 
-1.937500 2.343750 -20.000000 215 178 126 
-1.875000 2.343750 -20.000000 215 178 126 
0.551724 0.422238 -3.603096 213 176 124 
0.562984 0.422238 -3.603096 213 176 124 
0.574243 0.422238 -3.603096 213 176 124 
0.586328 0.422833 -3.608175 213 176 124 
0.692427 0.463679 -3.956723 214 175 123 
0.705336 0.464037 -3.959784 213 175 124 
11.875000 2.343750 -20.000000 177 150 95 
11.937500 2.343750 -20.000000 176 149 94 
12.000000 2.343750 -20.000000 175 148 93 
12.062500 2.343750 -20.000000 175 148 93 
12.125000 2.343750 -20.000000 174 147 92 
-4.888889 2.027778 -17.777779 197 164 118 
-4.833333 2.027778 -17.777779 198 164 118 
-4.794425 2.034843 -17.839722 199 165 119 
-4.738676 2.034843 -17.839722 199 165 119 
-4.699301 2.041958 -17.902098 199 165 119 
-4.937500 2.281250 -20.000000 201 167 121 
-4.875000 2.281250 -20.000000 200 166 120 
-4.812500 2.281250 -20.000000 201 167 121 
-4.750000 2.281250 -20.000000 201 167 120 
-4.687500 2.281250 -20.000000 201 167 119 
-4.625000 2.281250 -20.000000 202 168 120 
-4.562500 2.281250 -20.000000 202 168 120 
-4.500000 2.281250 -20.000000 204 169 121 
-4.437500 2.281250 -20.000000 205 169 121 
-4.375000 2.281250 -20.000000 205 169 121 
-4.312500 2.281250 -20.000000 205 169 121 
-4.250000 2.281250 -20.000000 206 170 120 
-4.187500 2.281250 -20.000000 207 171 121 
-4.125000 2.281250 -20.000000 207 171 121 
-4.062500 2.281250 -20.000000 207 171 121 
-4.000000 2.281250 -20.000000 207 171 121 
-3.937500 2.281250 -20.000000 207 171 121 
-3.875000 2.281250 -20.000000 208 172 122 
-3.812500 2.281250 -20.000000 208 172 122 
-3.750000 2.281250 -20.000000 209 173 123 
-3.687500 2.281250 -20.000000 209 173 123 
-3.625000 2.281250 -20.000000 209 173 123 
-3.562500 2.281250 -20.000000 209 173 123 
-3.500000 2.281250 -20.000000 210 172 123 
-3.437500 2.281250 -20.000000 210 172 123 
-3.375000 2.281250 -20.000000 211 173 124 
-3.312500 2.281250 -20.000000 211 173 124 
-3.250000 2.281250 -20.000000 211 173 124 
-3.187500 2.281250 -20.000000 212 174 125 
-3.125000 2.281250 -20.000000 212 174 125 
-3.062500 2.281250 -20.000000 212 174 125 
-3.000000 2.281250 -20.000000 213 175 124 
-2.937500 2.281250 -20.000000 213 176 124 
-2.875000 2.281250 -20.000000 213 176 124 
-2.812500 2.281250 -20.000000 213 176 124 
-2.750000 2.281250 -20.000000 214 177 125 
-2.687500 2.281250 -20.000000 214 177 125 
-2.625000 2.281250 -20.000000 214 177 125 
-2.562500 2.281250 -20.000000 214 177 125 
-2.500000 2.281250 -20.000000 214 177 125 
-2.437500 2.281250 -20.000000 215 178 126 
-2.375000 2.281250 -20.000000 214 177 125 
-2.312500 2.281250 -20.000000 214 177 125 
-2.250000 2.281250 -20.000000 214 177 125 
-2.187500 2.281250 -20.000000 214 177 125 
-2.125000 2.281250 -20.000000 214 177 125 
-2.062500 2.281250 -20.000000 214 177 125 
-2.000000 2.281250 -20.000000 215 178 126 
-1.937500 2.281250 -20.000000 215 178 126 
-1.875000 2.281250 -20.000000 214 177 125 
-1.812500 2.281250 -20.000000 214 177 125 
0.539705 0.410401 -3.598032 213 176 124 
0.550562 0.410112 -3.595506 213 176 124 
0.562193 0.410401 -3.598032 213 176 124 
0.573436 0.410401 -3.598032 213 176 124 
0.585503 0.410978 -3.603096 213 176 124 
0.692962 0.451663 -3.959784 214 175 124 
0.705882 0.452012 -3.962848 213 175 124 
11.875000 2.281250 -20.000000 176 149 94 
11.937500 2.281250 -20.000000 176 149 94 
12.000000 2.281250 -20.000000 176 149 94 
12.062500 2.281250 -20.000000 175 148 93 
12.125000 2.281250 -20.000000 174 147 93 
-4.888889 1.972222 -17.777779 197 164 117 
-4.833333 1.972222 -17.777779 198 164 118 
-4.777778 1.972222 -17.777779 199 165 119 
-4.722222 1.972222 -17.777779 199 165 119 
-4.682927 1.979094 -17.839722 198 164 118 
-4.643357 1.986014 -17.902098 199 165 119 
-4.875000 2.218750 -20.000000 200 166 120 
-4.812500 2.218750 -20.000000 201 167 121 
-4.750000 2.218750 -20.000000 201 167 121 
-4.687500 2.218750 -20.000000 201 167 119 
-4.625000 2.218750 -20.000000 202 168 120 
-4.562500 2.218750 -20.000000 202 168 120 
-4.500000 2.218750 -20.000000 204 169 121 
-4.437500 2.218750 -20.000000 205 169 121 
-4.375000 2.218750 -20.000000 205 169 121 
-4.312500 2.218750 -20.000000 205 169 120 
-4.250000 2.218750 -20.000000 205 169 119 
-4.187500 2.218750 -20.000000 206 170 120 
-4.125000 2.218750 -20.000000 207 171 121 
-4.062500 2.218750 -20.000000 207 171 121 
-4.000000 2.218750 -20.000000 207 171 121 
-3.937500 2.218750 -20.000000 207 171 121 
-3.875000 2.218750 -20.000000 208 172 122 
-3.812500 2.218750 -20.000000 208 172 122 
-3.750000 2.218750 -20.000000 209 173 123 
-3.687500 2.218750 -20.000000 209 173 123 
-3.625000 2.218750 -20.000000 209 173 123 
-3.562500 2.218750 -20.000000 209 173 123 
-3.500000 2.218750 -20.000000 210 172 123 
-3.437500 2.218750 -20.000000 210 172 123 
-3.375000 2.218750 -20.000000 211 173 124 
-3.312500 2.218750 -20.000000 211 173 124 
-3.250000 2.218750 -20.000000 211 173 124 
-3.187500 2.218750 -20.000000 212 174 125 
-3.125000 2.218750 -20.000000 212 174 125 
-3.062500 2.218750 -20.000000 212 174 125 
-3.000000 2.218750 -20.000000 213 175 124 
-2.937500 2.218750 -20.000000 213 176 124 
-2.875000 2.218750 -20.000000 213 176 124 
-2.812500 2.218750 -20.000000 213 176 124 
-2.750000 2.218750 -20.000000 214 177 125 
-2.687500 2.218750 -20.000000 214 177 125 
-2.625000 2.218750 -20.000000 214 177 125 
-2.562500 2.218750 -20.000000 214 177 125 
-2.500000 2.218750 -20.000000 214 177 125 
-2.437500 2.218750 -20.000000 215 178 126 
-2.375000 2.218750 -20.000000 215 178 126 
-2.312500 2.218750 -20.000000 214 177 125 
-2.250000 2.218750 -20.000000 214 177 125 
-2.187500 2.218750 -20.000000 214 177 125 
-2.125000 2.218750 -20.000000 214 177 125 
-2.062500 2.218750 -20.000000 214 177 125 
-2.000000 2.218750 -20.000000 215 178 126 
-1.937500 2.218750 -20.000000 215 178 126 
-1.875000 2.218750 -20.000000 214 177 125 
-1.812500 2.218750 -20.000000 214 177 125 
0.528090 0.398876 -3.595506 213 176 124 
0.539326 0.398876 -3.595506 213 176 124 
0.550562 0.398876 -3.595506 213 176 124 
0.561798 0.398876 -3.595506 213 176 124 
0.573034 0.398876 -3.595506 213 176 124 
0.584680 0.399157 -3.598032 213 176 124 
0.678489 0.437934 -3.947571 213 176 124 
0.690825 0.437934 -3.947571 214 175 124 
11.875000 2.218750 -20.000000 176 149 94 
11.937500 2.218750 -20.000000 176 149 95 
12.000000 2.218750 -20.000000 176 149 95 
12.062500 2.218750 -20.000000 176 149 95 
-4.871972 1.910035 -17.716263 197 163 117 
-4.816609 1.910035 -17.716263 198 164 118 
-4.777778 1.916667 -17.777779 199 165 119 
-4.722222 1.916667 -17.777779 199 165 119 
-4.666667 1.916667 -17.777779 198 164 118 
-4.627178 1.923345 -17.839722 199 165 119 
-4.875000 2.156250 -20.000000 200 166 120 
-4.812500 2.156250 -20.000000 201 167 121 
-4.750000 2.156250 -20.000000 202 168 121 
-4.687500 2.156250 -20.000000 202 168 120 
-4.625000 2.156250 -20.000000 202 168 120 
-4.562500 2.156250 -20.000000 203 169 121 
-4.500000 2.156250 -20.000000 204 169 121 
-4.437500 2.156250 -20.000000 205 169 121 
-4.375000 2.156250 -20.000000 205 169 121 
-4.312500 2.156250 -20.000000 205 169 120 
-4.250000 2.156250 -20.000000 205 169 119 
-4.187500 2.156250 -20.000000 206 170 120 
-4.125000 2.156250 -20.000000 207 171 121 
-4.062500 2.156250 -20.000000 207 171 121 
-4.000000 2.156250 -20.000000 207 171 121 
-3.937500 2.156250 -20.000000 207 171 121 
-3.875000 2.156250 -20.000000 208 172 122 
-3.812500 2.156250 -20.000000 208 172 122 
-3.750000 2.156250 -20.000000 208 172 122 
-3.687500 2.156250 -20.000000 208 172 122 
-3.625000 2.156250 -20.000000 208 172 122 
-3.562500 2.156250 -20.000000 208 172 122 
-3.500000 2.156250 -20.000000 209 172 123 
-3.437500 2.156250 -20.000000 210 172 123 
-3.375000 2.156250 -20.000000 211 173 124 
-3.312500 2.156250 -20.000000 211 173 124 
-3.250000 2.156250 -20.000000 211 173 124 
-3.187500 2.156250 -20.000000 212 174 125 
-3.125000 2.156250 -20.000000 212 174 125 
-3.062500 2.156250 -20.000000 212 174 125 
-3.000000 2.156250 -20.000000 213 175 124 
-2.937500 2.156250 -20.000000 213 176 124 
-2.875000 2.156250 -20.000000 213 176 124 
-2.812500 2.156250 -20.000000 213 176 124 
-2.750000 2.156250 -20.000000 214 177 125 
-2.687500 2.156250 -20.000000 214 177 125 
-2.625000 2.156250 -20.000000 214 177 125 
-2.562500 2.156250 -20.000000 214 177 125 
-2.500000 2.156250 -20.000000 214 177 125 
-2.437500 2.156250 -20.000000 214 177 125 
-2.375000 2.156250 -20.000000 215 178 126 
-2.312500 2.156250 -20.000000 214 177 125 
-2.250000 2.156250 -20.000000 214 177 125 
-2.187500 2.156250 -20.000000 214 177 125 
-2.125000 2.156250 -20.000000 214 177 125 
-2.062500 2.156250 -20.000000 214 177 125 
-2.000000 2.156250 -20.000000 214 177 125 
-1.937500 2.156250 -20.000000 214 177 125 
-1.875000 2.156250 -20.000000 214 177 125 
-1.812500 2.156250 -20.000000 215 178 126 
0.517217 0.387913 -3.598032 212 175 123 
0.528090 0.387640 -3.595506 212 175 123 
0.539326 0.387640 -3.595506 213 176 124 
0.550562 0.387640 -3.595506 213 176 124 
0.561798 0.387640 -3.595506 213 176 124 
0.573034 0.387640 -3.595506 213 176 124 
0.584680 0.387913 -3.598032 213 176 124 
0.678489 0.425598 -3.947571 212 175 123 
0.690825 0.425598 -3.947571 214 175 125 
11.875000 2.156250 -20.000000 177 150 95 
11.937500 2.156250 -20.000000 176 149 94 
12.000000 2.156250 -20.000000 176 149 95 
12.062500 2.156250 -20.000000 176 149 96 
-4.871972 1.854671 -17.716263 196 163 117 
-4.816609 1.854671 -17.716263 197 163 117 
-4.777778 1.861111 -17.777779 198 164 118 
-4.722222 1.861111 -17.777779 198 164 118 
-4.666667 1.861111 -17.777779 198 164 118 
-4.611111 1.861111 -17.777779 199 165 119 
-4.571429 1.867596 -17.839722 199 165 119 
-4.812500 2.093750 -20.000000 201 167 121 
-4.750000 2.093750 -20.000000 202 168 121 
-4.687500 2.093750 -20.000000 202 168 120 
-4.625000 2.093750 -20.000000 203 169 121 
-4.562500 2.093750 -20.000000 203 169 121 
-4.500000 2.093750 -20.000000 204 169 121 
-4.437500 2.093750 -20.000000 205 169 121 
-4.375000 2.093750 -20.000000 205 169 121 
-4.312500 2.093750 -20.000000 205 169 120 
-4.250000 2.093750 -20.000000 205 169 120 
-4.187500 2.093750 -20.000000 206 170 120 
-4.125000 2.093750 -20.000000 207 171 121 
-4.062500 2.093750 -20.000000 207 171 121 
-4.000000 2.093750 -20.000000 207 171 121 
-3.937500 2.093750 -20.000000 207 171 121 
-3.875000 2.093750 -20.000000 208 172 122 
-3.812500 2.093750 -20.000000 208 172 122 
-3.750000 2.093750 -20.000000 208 172 122 
-3.687500 2.093750 -20.000000 208 172 122 
-3.625000 2.093750 -20.000000 208 172 122 
-3.562500 2.093750 -20.000000 208 172 122 
-3.500000 2.093750 -20.000000 209 172 123 
-3.437500 2.093750 -20.000000 210 172 123 
-3.375000 2.093750 -20.000000 211 173 124 
-3.312500 2.093750 -20.000000 211 173 124 
-3.250000 2.093750 -20.000000 211 173 124 
-3.187500 2.093750 -20.000000 212 174 125 
-3.125000 2.093750 -20.000000 212 174 125 
-3.062500 2.093750 -20.000000 212 174 125 
-3.000000 2.093750 -20.000000 213 175 124 
-2.937500 2.093750 -20.000000 213 176 124 
-2.875000 2.093750 -20.000000 213 176 124 
-2.812500 2.093750 -20.000000 213 176 124 
-2.750000 2.093750 -20.000000 214 177 125 
-2.687500 2.093750 -20.000000 214 177 125 
-2.625000 2.093750 -20.000000 214 177 125 
-2.562500 2.093750 -20.000000 214 177 125 
-2.500000 2.093750 -20.000000 214 177 125 
-2.437500 2.093750 -20.000000 214 177 125 
-2.375000 2.093750 -20.000000 215 178 126 
-2.312500 2.093750 -20.000000 215 178 126 
-2.250000 2.093750 -20.000000 214 177 125 
-2.187500 2.093750 -20.000000 214 177 125 
-2.125000 2.093750 -20.000000 214 177 125 
-2.062500 2.093750 -20.000000 214 177 125 
-2.000000 2.093750 -20.000000 214 177 125 
-1.937500 2.093750 -20.000000 214 177 125 
-1.875000 2.093750 -20.000000 215 178 126 
-1.812500 2.093750 -20.000000 215 178 126 
-1.750000 2.093750 -20.000000 214 177 125 
0.517581 0.376934 -3.600563 212 175 123 
0.528090 0.376404 -3.595506 212 175 123 
0.539326 0.376404 -3.595506 213 176 124 
0.550562 0.376404 -3.595506 213 176 124 
0.561798 0.376404 -3.595506 213 176 124 
0.573034 0.376404 -3.595506 213 176 124 
0.584270 0.376404 -3.595506 212 175 123 
0.597183 0.377465 -3.605634 212 175 123 
0.665639 0.412943 -3.944530 212 175 123 
0.679537 0.413900 -3.953668 212 175 123 
0.691892 0.413900 -3.953668 214 175 125 
11.875000 2.093750 -20.000000 177 150 95 
11.937500 2.093750 -20.000000 175 148 94 
12.000000 2.093750 -20.000000 175 148 95 
12.062500 2.093750 -20.000000 175 148 95 
-4.871972 1.799308 -17.716263 197 163 117 
-4.816609 1.799308 -17.716263 197 163 117 
-4.761246 1.799308 -17.716263 198 164 118 
-4.722222 1.805556 -17.777779 199 165 119 
-4.666667 1.805556 -17.777779 198 164 118 
-4.611111 1.805556 -17.777779 199 165 119 
-4.571429 1.811847 -17.839722 199 165 119 
-4.812500 2.031250 -20.000000 201 167 121 
-4.750000 2.031250 -20.000000 202 168 121 
-4.687500 2.031250 -20.000000 203 168 120 
-4.625000 2.031250 -20.000000 204 168 120 
-4.562500 2.031250 -20.000000 204 168 120 
-4.500000 2.031250 -20.000000 204 169 121 
-4.437500 2.031250 -20.000000 205 169 121 
-4.375000 2.031250 -20.000000 205 169 121 
-4.312500 2.031250 -20.000000 206 170 121 
-4.250000 2.031250 -20.000000 206 170 120 
-4.187500 2.031250 -20.000000 206 170 120 
-4.125000 2.031250 -20.000000 207 171 121 
-4.062500 2.031250 -20.000000 207 171 121 
-4.000000 2.031250 -20.000000 208 172 121 
-3.937500 2.031250 -20.000000 208 172 122 
-3.875000 2.031250 -20.000000 208 172 122 
-3.812500 2.031250 -20.000000 208 172 122 
-3.750000 2.031250 -20.000000 208 171 122 
-3.687500 2.031250 -20.000000 209 171 122 
-3.625000 2.031250 -20.000000 209 172 122 
-3.562500 2.031250 -20.000000 210 172 123 
-3.500000 2.031250 -20.000000 211 173 125 
-3.437500 2.031250 -20.000000 211 173 125 
-3.375000 2.031250 -20.000000 211 173 124 
-3.312500 2.031250 -20.000000 211 173 124 
-3.250000 2.031250 -20.000000 211 173 124 
-3.187500 2.031250 -20.000000 212 174 123 
-3.125000 2.031250 -20.000000 212 175 124 
-3.062500 2.031250 -20.000000 212 175 124 
-3.000000 2.031250 -20.000000 213 176 124 
-2.937500 2.031250 -20.000000 213 176 124 
-2.875000 2.031250 -20.000000 213 176 124 
-2.812500 2.031250 -20.000000 213 176 124 
-2.750000 2.031250 -20.000000 213 176 124 
-2.687500 2.031250 -20.000000 213 176 124 
-2.625000 2.031250 -20.000000 214 177 125 
-2.562500 2.031250 -20.000000 214 177 125 
-2.500000 2.031250 -20.000000 214 177 125 
-2.437500 2.031250 -20.000000 214 177 125 
-2.375000 2.031250 -20.000000 214 177 125 
-2.312500 2.031250 -20.000000 214 177 125 
-2.250000 2.031250 -20.000000 214 177 125 
-2.187500 2.031250 -20.000000 214 177 125 
-2.125000 2.031250 -20.000000 214 177 125 
-2.062500 2.031250 -20.000000 215 178 126 
-2.000000 2.031250 -20.000000 214 177 125 
-1.937500 2.031250 -20.000000 214 177 125 
-1.875000 2.031250 -20.000000 215 178 126 
-1.812500 2.031250 -20.000000 215 178 126 
-1.750000 2.031250 -20.000000 214 177 125 
0.517581 0.365682 -3.600563 212 175 123 
0.528090 0.365169 -3.595506 212 175 123 
0.539326 0.365169 -3.595506 212 175 123 
0.550562 0.365169 -3.595506 212 175 123 
0.561798 0.365169 -3.595506 212 175 123 
0.573034 0.365169 -3.595506 212 175 123 
0.584680 0.365425 -3.598032 212 175 123 
0.597183 0.366197 -3.605634 212 175 123 
0.665127 0.400308 -3.941494 211 174 122 
0.679537 0.401544 -3.953668 212 175 123 
0.692962 0.402166 -3.959784 213 175 124 
11.812500 2.031250 -20.000000 177 150 96 
11.875000 2.031250 -20.000000 176 149 96 
11.937500 2.031250 -20.000000 176 149 95 
12.000000 2.031250 -20.000000 175 148 95 
12.062500 2.031250 -20.000000 174 147 94 
-4.855173 1.737931 -17.655172 197 163 117 
-4.800000 1.737931 -17.655172 197 163 117 
-4.761246 1.743945 -17.716263 198 164 118 
-4.705883 1.743945 -17.716263 199 165 119 
-4.666667 1.750000 -17.777779 199 165 119 
-4.611111 1.750000 -17.777779 198 164 118 
-4.571429 1.756098 -17.839722 199 165 119 
-4.812500 1.968750 -20.000000 201 167 121 
-4.750000 1.968750 -20.000000 202 168 121 
-4.687500 1.968750 -20.000000 204 168 120 
-4.625000 1.968750 -20.000000 204 168 120 
-4.562500 1.968750 -20.000000 204 168 120 
-4.500000 1.968750 -20.000000 204 168 120 
-4.437500 1.968750 -20.000000 205 169 121 
-4.375000 1.968750 -20.000000 205 169 121 
-4.312500 1.968750 -20.000000 206 170 121 
-4.250000 1.968750 -20.000000 206 170 120 
-4.187500 1.968750 -20.000000 206 170 120 
-4.125000 1.968750 -20.000000 206 170 120 
-4.062500 1.968750 -20.000000 207 171 120 
-4.000000 1.968750 -20.000000 207 171 121 
-3.937500 1.968750 -20.000000 207 171 121 
-3.875000 1.968750 -20.000000 207 171 121 
-3.812500 1.968750 -20.000000 207 171 121 
-3.750000 1.968750 -20.000000 208 170 121 
-3.687500 1.968750 -20.000000 209 171 122 
-3.625000 1.968750 -20.000000 210 172 123 
-3.562500 1.968750 -20.000000 210 172 123 
-3.500000 1.968750 -20.000000 211 173 125 
-3.437500 1.968750 -20.000000 211 173 125 
-3.375000 1.968750 -20.000000 211 173 124 
-3.312500 1.968750 -20.000000 211 173 124 
-3.250000 1.968750 -20.000000 211 174 124 
-3.187500 1.968750 -20.000000 212 175 123 
-3.125000 1.968750 -20.000000 212 175 123 
-3.062500 1.968750 -20.000000 212 175 123 
-3.000000 1.968750 -20.000000 213 176 124 
-2.937500 1.968750 -20.000000 213 176 124 
-2.875000 1.968750 -20.000000 213 176 124 
-2.812500 1.968750 -20.000000 213 176 124 
-2.750000 1.968750 -20.000000 213 176 124 
-2.687500 1.968750 -20.000000 214 177 125 
-2.625000 1.968750 -20.000000 214 177 125 
-2.562500 1.968750 -20.000000 214 177 125 
-2.500000 1.968750 -20.000000 214 177 125 
-2.437500 1.968750 -20.000000 214 177 125 
-2.375000 1.968750 -20.000000 214 177 125 
-2.312500 1.968750 -20.000000 214 177 125 
-2.250000 1.968750 -20.000000 214 177 125 
-2.187500 1.968750 -20.000000 214 177 125 
-2.125000 1.968750 -20.000000 214 177 125 
-2.062500 1.968750 -20.000000 215 178 126 
-2.000000 1.968750 -20.000000 214 177 125 
-1.937500 1.968750 -20.000000 215 178 126 
-1.875000 1.968750 -20.000000 215 178 126 
-1.812500 1.968750 -20.000000 214 177 125 
-1.750000 1.968750 -20.000000 214 177 125 
-1.687500 1.968750 -20.000000 213 176 124 
0.528461 0.354181 -3.598032 211 174 122 
0.539326 0.353933 -3.595506 212 175 123 
0.550562 0.353933 -3.595506 212 175 123 
0.561798 0.353933 -3.595506 211 174 122 
0.573436 0.354181 -3.598032 211 174 122 
0.584680 0.354181 -3.598032 212 175 123 
0.598025 0.355430 -3.610719 212 175 123 
0.666667 0.388889 -3.950617 211 174 122 
0.680588 0.389791 -3.959784 211 174 122 
0.694574 0.390698 -3.968992 212 174 122 
11.812500 1.968750 -20.000000 176 149 96 
11.875000 1.968750 -20.000000 176 149 96 
11.937500 1.968750 -20.000000 176 149 96 
12.000000 1.968750 -20.000000 176 149 96 
12.062500 1.968750 -20.000000 175 148 95 
-4.855173 1.682759 -17.655172 196 163 117 
-4.767123 1.671233 -17.534246 197 163 117 
-4.744828 1.682759 -17.655172 198 164 118 
-4.689655 1.682759 -17.655172 198 164 118 
-4.650519 1.688581 -17.716263 199 165 119 
-4.611111 1.694444 -17.777779 198 164 118 
-4.555555 1.694444 -17.777779 199 165 119 
-4.812500 1.906250 -20.000000 201 167 121 
-4.750000 1.906250 -20.000000 202 168 121 
-4.687500 1.906250 -20.000000 204 168 120 
